6.000000 239.000000 19.650839 128 128 128
6.000000 240.000000 19.573359 142 142 142
6.000000 241.000000 19.527559 163 163 163
6.000000 242.000000 19.431217 145 145 145
6.000000 243.000000 19.359060 131 131 131
6.000000 244.000000 19.235136 136 136 136
6.000000 245.000000 19.190987 136 136 136
6.000000 246.000000 19.125000 136 136 136
6.000000 247.000000 19.116667 132 132 132
6.000000 248.000000 19.116667 130 130 130
6.000000 249.000000 19.154545 131 131 131
6.000000 250.000000 19.154545 130 130 130
6.000000 251.000000 19.105577 128 128 128
6.000000 252.000000 19.091549 129 129 129
6.000000 253.000000 19.091549 129 129 129
6.000000 254.000000 19.026316 130 130 130
6.000000 255.000000 19.012659 132 132 132
6.000000 256.000000 19.000000 133 133 133
6.000000 257.000000 19.000000 110 110 110
6.000000 258.000000 19.000000 76 76 76
6.000000 259.000000 19.000000 79 79 79
6.000000 260.000000 19.000000 95 95 95
6.000000 261.000000 19.000000 124 124 124
6.000000 262.000000 19.000000 124 124 124
6.000000 263.000000 19.000000 121 121 121
6.000000 264.000000 19.000000 122 122 122
6.000000 265.000000 19.021740 122 122 122
6.000000 266.000000 19.040773 120 120 120
6.000000 267.000000 19.056887 118 118 118
6.000000 268.000000 19.175325 117 117 117
6.000000 269.000000 19.200729 120 120 120
6.000000 270.000000 19.286459 120 120 120
6.000000 271.000000 19.815151 115 115 115
6.000000 272.000000 19.924242 124 124 124
6.000000 273.000000 20.139175 153 153 153
6.000000 274.000000 20.169767 146 146 146
6.000000 275.000000 20.197842 141 141 141
6.000000 276.000000 20.598837 143 143 143
6.000000 277.000000 20.652317 150 150 150
6.000000 278.000000 20.722221 151 151 151
6.000000 279.000000 20.774336 148 148 148
6.000000 280.000000 20.831818 147 147 147
6.000000 281.000000 20.831818 147 147 147
6.000000 282.000000 20.833334 144 144 144
6.000000 283.000000 20.847059 138 138 138
6.000000 284.000000 20.871727 128 128 128
6.000000 285.000000 20.871727 91 91 91
6.000000 286.000000 20.916927 79 79 79
6.000000 287.000000 20.916927 151 151 151
6.000000 288.000000 20.916927 181 181 181
6.000000 289.000000 20.916927 166 166 166
6.000000 290.000000 20.916927 166 166 166
6.000000 291.000000 20.911764 174 174 174
6.000000 292.000000 20.911764 174 174 174
6.000000 293.000000 20.911764 172 172 172
6.000000 294.000000 20.901869 171 171 171
6.000000 295.000000 20.900881 171 171 171
6.000000 296.000000 20.858078 175 175 175
6.000000 297.000000 20.858078 175 175 175
6.000000 298.000000 20.858078 174 174 174
6.000000 299.000000 20.884615 173 173 173
6.000000 300.000000 20.884615 168 168 168
6.000000 301.000000 20.886759 168 168 168
6.000000 302.000000 20.915930 171 171 171
6.000000 303.000000 20.936619 171 171 171
6.000000 304.000000 20.936619 173 173 173
6.000000 305.000000 20.939491 173 173 173
6.000000 306.000000 20.939491 173 173 173
6.000000 307.000000 20.883966 166 166 166
6.000000 308.000000 20.883966 169 169 169
6.000000 309.000000 20.883966 173 173 173
6.000000 310.000000 20.883966 136 136 136
6.000000 311.000000 20.823277 126 126 126
6.000000 312.000000 20.798388 132 132 132
6.000000 313.000000 20.798388 131 131 131
6.000000 314.000000 20.834976 131 131 131
6.000000 315.000000 20.834976 135 135 135
6.000000 316.000000 20.821678 139 139 139
6.000000 317.000000 20.744791 138 138 138
6.000000 318.000000 20.579365 146 146 146
6.000000 319.000000 20.579365 154 154 154
6.000000 320.000000 20.725807 152 152 152
6.000000 321.000000 20.775229 149 149 149
6.000000 322.000000 20.789656 144 144 144
6.000000 323.000000 20.820000 147 147 147
6.000000 324.000000 20.796875 146 146 146
6.000000 325.000000 20.777420 143 143 143
6.000000 326.000000 20.777420 142 142 142
6.000000 327.000000 20.796875 139 139 139
6.000000 328.000000 20.804348 137 137 137
6.000000 329.000000 20.813869 137 137 137
6.000000 330.000000 20.863636 132 132 132
6.000000 331.000000 20.907961 111 111 111
6.000000 332.000000 20.919142 76 76 76
6.000000 333.000000 20.919142 108 108 108
6.000000 334.000000 20.919142 168 168 168
6.000000 335.000000 20.935684 167 167 167
6.000000 336.000000 20.939253 166 166 166
6.000000 337.000000 20.939253 164 164 164
6.000000 338.000000 20.939253 166 166 166
6.000000 339.000000 21.002415 164 164 164
6.000000 340.000000 20.950001 167 167 167
6.000000 341.000000 20.950001 164 164 164
6.000000 342.000000 20.950001 167 167 167
6.000000 343.000000 20.950001 167 167 167
6.000000 344.000000 20.918804 167 167 167
6.000000 345.000000 20.918804 169 169 169
6.000000 346.000000 20.928572 166 166 166
6.000000 347.000000 20.918686 168 168 168
6.000000 348.000000 20.906250 169 169 169
6.000000 349.000000 20.906250 166 166 166
6.000000 350.000000 20.911392 168 168 168
6.000000 351.000000 20.911392 172 172 172
6.000000 352.000000 20.911392 170 170 170
6.000000 353.000000 20.911392 166 166 166
6.000000 354.000000 20.920139 169 169 169
6.000000 355.000000 20.920139 179 179 179
6.000000 356.000000 20.874430 164 164 164
6.000000 357.000000 20.853909 121 121 121
6.000000 358.000000 20.853909 124 124 124
6.000000 359.000000 16.911764 126 126 126
6.000000 360.000000 16.816456 142 142 142
6.000000 361.000000 16.641510 140 140 140
6.000000 362.000000 16.665518 116 116 116
6.000000 363.000000 16.665747 120 120 120
6.000000 364.000000 16.665747 151 151 151
6.000000 365.000000 16.790909 148 148 148
6.000000 366.000000 16.790909 133 133 133
6.000000 367.000000 16.892857 128 128 128
6.000000 368.000000 16.892857 132 132 132
6.000000 369.000000 16.821428 147 147 147
6.000000 370.000000 16.821428 155 155 155
6.000000 371.000000 17.005156 152 152 152
6.000000 376.000000 20.846153 149 149 149
6.000000 377.000000 20.828947 152 152 152
6.000000 378.000000 20.828947 164 164 164
6.000000 379.000000 20.828947 103 103 103
6.000000 380.000000 20.828947 129 129 129
6.000000 381.000000 20.828947 150 150 150
6.000000 382.000000 20.828947 141 141 141
6.000000 383.000000 20.825968 142 142 142
6.000000 384.000000 20.825968 138 138 138
6.000000 385.000000 20.825968 133 133 133
6.000000 386.000000 20.825968 132 132 132
6.000000 387.000000 20.825968 133 133 133
6.000000 388.000000 20.825968 134 134 134
6.000000 389.000000 20.825968 137 137 137
6.000000 390.000000 20.835228 140 140 140
6.000000 391.000000 20.835228 140 140 140
6.000000 392.000000 20.869230 140 140 140
6.000000 393.000000 20.869230 147 147 147
6.000000 394.000000 20.869230 145 145 145
6.000000 395.000000 20.884146 140 140 140
6.000000 396.000000 20.884615 140 140 140
6.000000 397.000000 20.884615 139 139 139
6.000000 398.000000 20.884146 138 138 138
6.000000 399.000000 20.809353 142 142 142
6.000000 400.000000 20.777311 142 142 142
6.000000 401.000000 20.711267 148 148 148
6.000000 402.000000 20.689781 152 152 152
6.000000 403.000000 20.558823 157 157 157
6.000000 404.000000 20.443089 156 156 156
6.000000 405.000000 20.389448 157 157 157
6.000000 406.000000 20.336956 161 161 161
6.000000 407.000000 20.318182 159 159 159
6.000000 408.000000 20.318182 165 165 165
6.000000 409.000000 20.169903 148 148 148
6.000000 410.000000 20.016666 136 136 136
6.000000 411.000000 17.276596 160 160 160
6.000000 412.000000 17.660000 168 168 168
6.000000 413.000000 17.779503 167 167 167
6.000000 414.000000 17.878948 165 165 165
6.000000 415.000000 17.878948 163 163 163
6.000000 416.000000 19.141577 165 165 165
6.000000 417.000000 19.166666 166 166 166
6.000000 418.000000 19.313433 159 159 159
6.000000 419.000000 19.613636 157 157 157
6.000000 420.000000 20.117424 159 159 159
6.000000 422.000000 20.375000 154 154 154
6.000000 423.000000 20.375000 155 155 155
6.000000 424.000000 20.469696 158 158 158
6.000000 425.000000 20.481251 122 122 122
6.000000 426.000000 20.481251 134 134 134
6.000000 427.000000 20.481251 176 176 176
6.000000 428.000000 20.573826 170 170 170
6.000000 429.000000 20.505747 170 170 170
6.000000 430.000000 20.505747 169 169 169
6.000000 431.000000 20.505747 169 169 169
6.000000 432.000000 20.505747 169 169 169
6.000000 433.000000 20.585106 168 168 168
6.000000 434.000000 20.585106 167 167 167
6.000000 435.000000 20.697426 168 168 168
6.000000 436.000000 20.697426 169 169 169
6.000000 437.000000 20.662338 164 164 164
6.000000 438.000000 20.640495 167 167 167
6.000000 439.000000 20.395350 166 166 166
6.000000 440.000000 20.395350 167 167 167
6.000000 441.000000 20.443396 170 170 170
6.000000 442.000000 20.443396 166 166 166
6.000000 443.000000 20.524096 165 165 165
6.000000 444.000000 20.590910 165 165 165
6.000000 445.000000 20.647058 163 163 163
6.000000 446.000000 20.647058 163 163 163
6.000000 447.000000 20.771187 161 161 161
7.000000 22.000000 17.111111 169 169 169
7.000000 23.000000 17.111111 160 160 160
7.000000 30.000000 17.271654 98 98 98
7.000000 31.000000 17.271654 112 112 112
7.000000 32.000000 17.382353 136 136 136
7.000000 33.000000 17.446428 158 158 158
7.000000 34.000000 17.452942 162 162 162
7.000000 35.000000 17.452942 163 163 163
7.000000 36.000000 17.506712 153 153 153
7.000000 37.000000 17.706896 124 124 124
7.000000 38.000000 17.894495 157 157 157
7.000000 39.000000 17.910959 169 169 169
7.000000 40.000000 17.913979 170 170 170
7.000000 41.000000 17.933447 170 170 170
7.000000 42.000000 17.949152 139 139 139
7.000000 43.000000 17.973215 125 125 125
7.000000 44.000000 17.973215 152 152 152
7.000000 45.000000 17.973215 159 159 159
7.000000 46.000000 17.973959 159 159 159
7.000000 47.000000 17.981482 157 157 157
7.000000 48.000000 17.981482 116 116 116
7.000000 49.000000 18.025423 104 104 104
7.000000 54.000000 18.057491 135 135 135
7.000000 55.000000 18.057491 116 116 116
7.000000 56.000000 18.160000 139 139 139
7.000000 59.000000 18.133587 144 144 144
7.000000 60.000000 18.132353 144 144 144
7.000000 61.000000 18.058140 135 135 135
7.000000 62.000000 18.132353 155 155 155
7.000000 63.000000 18.133587 179 179 179
7.000000 64.000000 18.133587 156 156 156
7.000000 65.000000 18.207626 152 152 152
7.000000 66.000000 18.207626 150 150 150
7.000000 67.000000 18.207626 152 152 152
7.000000 68.000000 18.189362 149 149 149
7.000000 69.000000 18.191359 142 142 142
7.000000 70.000000 18.357143 140 140 140
7.000000 78.000000 18.855371 141 141 141
7.000000 79.000000 18.855371 144 144 144
7.000000 80.000000 18.855371 145 145 145
7.000000 81.000000 18.916000 148 148 148
7.000000 82.000000 18.916000 155 155 155
7.000000 83.000000 18.916000 152 152 152
7.000000 95.000000 19.132107 118 118 118
7.000000 96.000000 19.061872 149 149 149
7.000000 97.000000 19.061872 140 140 140
7.000000 98.000000 18.989452 112 112 112
7.000000 99.000000 19.105263 152 152 152
7.000000 106.000000 19.092358 172 172 172
7.000000 107.000000 19.031382 172 172 172
7.000000 108.000000 19.031382 174 174 174
7.000000 109.000000 19.031382 171 171 171
7.000000 110.000000 19.034031 173 173 173
7.000000 137.000000 20.150000 171 171 171
7.000000 138.000000 20.150000 171 171 171
7.000000 139.000000 20.150000 168 168 168
7.000000 140.000000 20.059702 177 177 177
7.000000 141.000000 20.059702 183 183 183
7.000000 144.000000 20.032520 158 158 158
7.000000 145.000000 20.032520 157 157 157
7.000000 146.000000 20.032520 147 147 147
7.000000 147.000000 20.032520 135 135 135
7.000000 148.000000 20.086206 127 127 127
7.000000 149.000000 20.086206 127 127 127
7.000000 150.000000 20.086206 142 142 142
7.000000 151.000000 20.058975 144 144 144
7.000000 152.000000 20.058975 146 146 146
7.000000 164.000000 20.383928 154 154 154
7.000000 165.000000 20.383928 153 153 153
7.000000 166.000000 20.318605 169 169 169
7.000000 167.000000 20.293940 175 175 175
7.000000 168.000000 20.289238 162 162 162
7.000000 169.000000 20.270992 160 160 160
7.000000 170.000000 20.163265 160 160 160
7.000000 171.000000 20.163265 163 163 163
7.000000 172.000000 20.259125 165 165 165
7.000000 173.000000 20.277779 169 169 169
7.000000 174.000000 20.310810 174 174 174
7.000000 175.000000 20.344311 146 146 146
7.000000 176.000000 20.482143 101 101 101
7.000000 177.000000 20.588888 99 99 99
7.000000 178.000000 20.816092 112 112 112
7.000000 179.000000 20.901869 105 105 105
7.000000 180.000000 20.906113 133 133 133
7.000000 181.000000 20.920815 159 159 159
7.000000 182.000000 20.941624 134 134 134
7.000000 183.000000 20.982588 132 132 132
7.000000 184.000000 20.982588 114 114 114
7.000000 185.000000 21.000000 108 108 108
7.000000 186.000000 21.000000 97 97 97
7.000000 187.000000 21.000000 50 50 50
7.000000 188.000000 21.000000 76 76 76
7.000000 189.000000 20.938776 77 77 77
7.000000 190.000000 20.938776 51 51 51
7.000000 191.000000 20.938776 99 99 99
7.000000 192.000000 20.938776 132 132 132
7.000000 193.000000 20.949276 149 149 149
7.000000 194.000000 20.949276 149 149 149
7.000000 195.000000 20.949276 151 151 151
7.000000 196.000000 20.886599 149 149 149
7.000000 197.000000 20.873135 148 148 148
7.000000 198.000000 20.831684 145 145 145
7.000000 199.000000 20.781916 150 150 150
7.000000 200.000000 20.711010 149 149 149
7.000000 201.000000 20.683544 148 148 148
7.000000 202.000000 20.333334 149 149 149
7.000000 203.000000 20.333334 146 146 146
7.000000 204.000000 20.333334 144 144 144
7.000000 205.000000 20.316425 138 138 138
7.000000 206.000000 20.227810 166 166 166
7.000000 207.000000 20.227810 134 134 134
7.000000 208.000000 20.138298 130 130 130
7.000000 209.000000 20.063381 149 149 149
7.000000 210.000000 20.043690 146 146 146
7.000000 211.000000 20.043690 141 141 141
7.000000 212.000000 20.043690 137 137 137
7.000000 213.000000 20.043690 135 135 135
7.000000 214.000000 20.043209 132 132 132
7.000000 215.000000 20.043209 129 129 129
7.000000 216.000000 20.056963 127 127 127
7.000000 217.000000 20.056963 128 128 128
7.000000 218.000000 20.056963 130 130 130
7.000000 219.000000 20.038136 126 126 126
7.000000 220.000000 20.000000 127 127 127
7.000000 221.000000 20.000000 127 127 127
7.000000 222.000000 20.000000 126 126 126
7.000000 223.000000 20.000000 125 125 125
7.000000 224.000000 20.000000 141 141 141
7.000000 225.000000 20.000000 131 131 131
7.000000 226.000000 20.000000 76 76 76
7.000000 227.000000 20.000000 108 108 108
7.000000 228.000000 19.976923 164 164 164
7.000000 229.000000 19.952471 157 157 157
7.000000 230.000000 19.951263 157 157 157
7.000000 231.000000 19.945887 145 145 145
7.000000 232.000000 19.945887 140 140 140
7.000000 233.000000 19.945887 142 142 142
7.000000 234.000000 19.863310 142 142 142
7.000000 235.000000 19.725491 136 136 136
7.000000 236.000000 19.722221 138 138 138
7.000000 237.000000 19.666666 138 138 138
7.000000 238.000000 19.666666 136 136 136
7.000000 239.000000 19.650839 130 130 130
7.000000 240.000000 19.573359 146 146 146
7.000000 241.000000 19.527559 161 161 161
7.000000 242.000000 19.527559 135 135 135
7.000000 243.000000 19.359060 129 129 129
7.000000 244.000000 19.316668 136 136 136
7.000000 245.000000 19.235136 136 136 136
7.000000 246.000000 19.153061 133 133 133
7.000000 247.000000 19.125000 134 134 134
7.000000 248.000000 19.116667 132 132 132
7.000000 249.000000 19.116667 130 130 130
7.000000 250.000000 19.105577 131 131 131
7.000000 251.000000 19.087570 125 125 125
7.000000 252.000000 19.087570 126 126 126
7.000000 253.000000 19.087570 127 127 127
7.000000 254.000000 19.083334 128 128 128
7.000000 255.000000 19.012659 130 130 130
7.000000 256.000000 19.012659 130 130 130
7.000000 257.000000 19.000000 105 105 105
7.000000 258.000000 19.000000 75 75 75
7.000000 259.000000 19.000000 71 71 71
7.000000 260.000000 19.000000 81 81 81
7.000000 261.000000 19.000000 119 119 119
7.000000 262.000000 19.000000 122 122 122
7.000000 263.000000 19.000000 120 120 120
7.000000 264.000000 19.000000 121 121 121
7.000000 265.000000 19.021740 120 120 120
7.000000 266.000000 19.040773 118 118 118
7.000000 267.000000 19.056887 118 118 118
7.000000 268.000000 19.147959 116 116 116
7.000000 269.000000 19.200729 118 118 118
7.000000 270.000000 19.286459 115 115 115
7.000000 271.000000 19.810043 116 116 116
7.000000 272.000000 19.896296 134 134 134
7.000000 273.000000 20.019686 153 153 153
7.000000 274.000000 20.160378 144 144 144
7.000000 275.000000 20.197842 148 148 148
7.000000 276.000000 20.466667 152 152 152
7.000000 277.000000 20.598837 156 156 156
7.000000 278.000000 20.722221 151 151 151
7.000000 279.000000 20.798969 150 150 150
7.000000 280.000000 20.811628 152 152 152
7.000000 281.000000 20.816584 147 147 147
7.000000 282.000000 20.816584 145 145 145
7.000000 283.000000 20.833334 140 140 140
7.000000 284.000000 20.833334 139 139 139
7.000000 285.000000 20.833334 119 119 119
7.000000 286.000000 20.857143 78 78 78
7.000000 287.000000 20.916927 102 102 102
7.000000 288.000000 20.916927 164 164 164
7.000000 289.000000 20.916927 175 175 175
7.000000 290.000000 20.916927 167 167 167
7.000000 291.000000 20.916927 171 171 171
7.000000 292.000000 20.911764 171 171 171
7.000000 293.000000 20.911764 171 171 171
7.000000 294.000000 20.901869 172 172 172
7.000000 295.000000 20.900881 167 167 167
7.000000 296.000000 20.873272 172 172 172
7.000000 297.000000 20.858078 177 177 177
7.000000 298.000000 20.884615 179 179 179
7.000000 299.000000 20.884615 174 174 174
7.000000 300.000000 20.886759 171 171 171
7.000000 301.000000 20.915930 167 167 167
7.000000 302.000000 20.936619 167 167 167
7.000000 303.000000 20.936619 171 171 171
7.000000 304.000000 20.936619 172 172 172
7.000000 305.000000 20.936619 170 170 170
7.000000 306.000000 20.939491 168 168 168
7.000000 307.000000 20.939491 168 168 168
7.000000 308.000000 20.899141 168 168 168
7.000000 309.000000 20.883966 175 175 175
7.000000 310.000000 20.823277 169 169 169
7.000000 311.000000 20.798388 127 127 127
7.000000 312.000000 20.798388 125 125 125
7.000000 313.000000 20.798388 131 131 131
7.000000 314.000000 20.834976 133 133 133
7.000000 315.000000 20.834976 134 134 134
7.000000 316.000000 20.821678 135 135 135
7.000000 317.000000 20.744791 148 148 148
7.000000 318.000000 20.665606 156 156 156
7.000000 319.000000 20.665606 152 152 152
7.000000 320.000000 20.750000 149 149 149
7.000000 321.000000 20.769962 149 149 149
7.000000 322.000000 20.775229 151 151 151
7.000000 323.000000 20.777420 148 148 148
7.000000 324.000000 20.777420 146 146 146
7.000000 325.000000 20.693277 143 143 143
7.000000 326.000000 20.693277 147 147 147
7.000000 327.000000 20.777420 147 147 147
7.000000 328.000000 20.804348 143 143 143
7.000000 329.000000 20.813869 139 139 139
7.000000 330.000000 20.824675 138 138 138
7.000000 331.000000 20.896984 129 129 129
7.000000 332.000000 20.907961 99 99 99
7.000000 333.000000 20.919142 68 68 68
7.000000 334.000000 20.919142 126 126 126
7.000000 335.000000 20.935684 174 174 174
7.000000 336.000000 20.935684 167 167 167
7.000000 337.000000 20.939253 163 163 163
7.000000 338.000000 21.002415 163 163 163
7.000000 339.000000 21.002415 164 164 164
7.000000 340.000000 21.002415 165 165 165
7.000000 341.000000 20.950001 163 163 163
7.000000 342.000000 20.950001 164 164 164
7.000000 343.000000 20.918804 170 170 170
7.000000 344.000000 20.918804 166 166 166
7.000000 345.000000 20.918804 167 167 167
7.000000 346.000000 20.918804 169 169 169
7.000000 347.000000 20.906250 166 166 166
7.000000 348.000000 20.906250 170 170 170
7.000000 349.000000 20.906250 169 169 169
7.000000 350.000000 20.906250 163 163 163
7.000000 351.000000 20.906250 167 167 167
7.000000 352.000000 20.911392 170 170 170
7.000000 353.000000 20.911392 170 170 170
7.000000 354.000000 20.920139 165 165 165
7.000000 355.000000 20.920139 164 164 164
7.000000 356.000000 20.874430 182 182 182
7.000000 357.000000 20.874430 155 155 155
7.000000 358.000000 20.853909 117 117 117
7.000000 359.000000 20.827778 125 125 125
7.000000 360.000000 17.002392 143 143 143
7.000000 361.000000 17.002392 145 145 145
7.000000 362.000000 16.908730 136 136 136
7.000000 363.000000 16.833334 160 160 160
7.000000 364.000000 16.806452 139 139 139
7.000000 365.000000 16.806452 126 126 126
7.000000 366.000000 16.890863 135 135 135
7.000000 367.000000 16.892857 148 148 148
7.000000 368.000000 16.892857 150 150 150
7.000000 369.000000 16.882513 148 148 148
7.000000 370.000000 16.882513 149 149 149
7.000000 371.000000 17.265854 151 151 151
7.000000 375.000000 20.846153 153 153 153
7.000000 376.000000 20.369566 159 159 159
7.000000 377.000000 20.369566 169 169 169
7.000000 378.000000 20.402439 148 148 148
7.000000 379.000000 20.585714 87 87 87
7.000000 380.000000 20.592714 81 81 81
7.000000 381.000000 20.660221 146 146 146
7.000000 382.000000 20.813433 144 144 144
7.000000 383.000000 20.825968 140 140 140
7.000000 384.000000 20.825968 141 141 141
7.000000 385.000000 20.825968 140 140 140
7.000000 386.000000 20.825968 139 139 139
7.000000 387.000000 20.825968 137 137 137
7.000000 388.000000 20.825968 135 135 135
7.000000 389.000000 20.825968 136 136 136
7.000000 390.000000 20.825968 142 142 142
7.000000 391.000000 20.825968 144 144 144
7.000000 392.000000 20.825968 140 140 140
7.000000 393.000000 20.825968 145 145 145
7.000000 394.000000 20.825968 149 149 149
7.000000 395.000000 20.869230 146 146 146
7.000000 396.000000 20.884146 143 143 143
7.000000 397.000000 20.884146 141 141 141
7.000000 398.000000 20.884146 138 138 138
7.000000 399.000000 20.884146 140 140 140
7.000000 400.000000 20.791140 144 144 144
7.000000 401.000000 20.746376 151 151 151
7.000000 402.000000 20.711267 147 147 147
7.000000 403.000000 20.689781 154 154 154
7.000000 404.000000 20.630434 161 161 161
7.000000 405.000000 20.544025 161 161 161
7.000000 406.000000 20.336956 160 160 160
7.000000 407.000000 20.318182 161 161 161
7.000000 408.000000 20.169903 150 150 150
7.000000 409.000000 20.082418 142 142 142
7.000000 410.000000 19.617647 161 161 161
7.000000 411.000000 17.660000 165 165 165
7.000000 412.000000 17.660000 162 162 162
7.000000 415.000000 19.141577 162 162 162
7.000000 416.000000 19.141577 166 166 166
7.000000 417.000000 19.141577 167 167 167
7.000000 418.000000 19.308430 157 157 157
7.000000 419.000000 19.435184 155 155 155
7.000000 420.000000 20.217392 158 158 158
7.000000 423.000000 20.469696 155 155 155
7.000000 424.000000 20.481251 156 156 156
7.000000 425.000000 20.481251 148 148 148
7.000000 426.000000 20.481251 118 118 118
7.000000 427.000000 20.481251 147 147 147
7.000000 428.000000 20.505747 174 174 174
7.000000 429.000000 20.505747 168 168 168
7.000000 430.000000 20.505747 171 171 171
7.000000 431.000000 20.505747 172 172 172
7.000000 432.000000 20.505747 169 169 169
7.000000 433.000000 20.585106 168 168 168
7.000000 434.000000 20.674603 167 167 167
7.000000 435.000000 20.697426 171 171 171
7.000000 436.000000 20.697426 169 169 169
7.000000 437.000000 20.640495 166 166 166
7.000000 438.000000 20.395350 167 167 167
7.000000 439.000000 20.212645 167 167 167
7.000000 440.000000 20.212645 167 167 167
7.000000 441.000000 20.395350 169 169 169
7.000000 442.000000 20.443396 169 169 169
7.000000 443.000000 20.471830 165 165 165
7.000000 444.000000 20.590910 164 164 164
7.000000 445.000000 20.590910 164 164 164
7.000000 446.000000 20.647058 163 163 163
7.000000 447.000000 20.647058 163 163 163
7.000000 448.000000 20.787672 162 162 162
8.000000 22.000000 17.111111 162 162 162
8.000000 23.000000 17.111111 113 113 113
8.000000 31.000000 17.380342 161 161 161
8.000000 32.000000 17.380342 163 163 163
8.000000 33.000000 17.446428 159 159 159
8.000000 34.000000 17.452942 150 150 150
8.000000 35.000000 17.506712 139 139 139
8.000000 36.000000 17.706896 109 109 109
8.000000 37.000000 17.805555 122 122 122
8.000000 38.000000 17.910959 170 170 170
8.000000 39.000000 17.913979 170 170 170
8.000000 40.000000 17.913979 174 174 174
8.000000 41.000000 17.913979 135 135 135
8.000000 42.000000 17.949152 119 119 119
8.000000 43.000000 17.973215 154 154 154
8.000000 44.000000 17.973215 163 163 163
8.000000 45.000000 17.973959 160 160 160
8.000000 46.000000 17.973959 164 164 164
8.000000 47.000000 17.981482 139 139 139
8.000000 48.000000 18.025423 99 99 99
8.000000 53.000000 18.031496 122 122 122
8.000000 54.000000 18.038153 101 101 101
8.000000 55.000000 18.057491 108 108 108
8.000000 56.000000 18.160000 142 142 142
8.000000 57.000000 18.160000 141 141 141
8.000000 58.000000 18.133587 143 143 143
8.000000 59.000000 18.133587 144 144 144
8.000000 60.000000 18.132353 139 139 139
8.000000 61.000000 18.132353 138 138 138
8.000000 62.000000 18.133587 167 167 167
8.000000 63.000000 18.142857 169 169 169
8.000000 67.000000 18.313559 150 150 150
8.000000 68.000000 18.227272 149 149 149
8.000000 69.000000 18.227272 142 142 142
8.000000 70.000000 18.458904 142 142 142
8.000000 71.000000 18.458904 147 147 147
8.000000 78.000000 18.855371 139 139 139
8.000000 79.000000 18.855371 144 144 144
8.000000 80.000000 18.916000 145 145 145
8.000000 81.000000 18.916000 148 148 148
8.000000 82.000000 18.916000 156 156 156
8.000000 83.000000 18.916000 130 130 130
8.000000 90.000000 19.057789 137 137 137
8.000000 96.000000 19.098591 111 111 111
8.000000 97.000000 19.098591 124 124 124
8.000000 98.000000 19.105263 147 147 147
8.000000 106.000000 19.243244 172 172 172
8.000000 107.000000 19.243244 172 172 172
8.000000 108.000000 19.243244 172 172 172
8.000000 109.000000 19.243244 173 173 173
8.000000 110.000000 19.093407 171 171 171
8.000000 111.000000 19.093407 175 175 175
8.000000 136.000000 20.087755 171 171 171
8.000000 137.000000 20.087755 171 171 171
8.000000 138.000000 20.150000 173 173 173
8.000000 139.000000 20.117022 168 168 168
8.000000 140.000000 20.062893 183 183 183
8.000000 141.000000 20.062893 175 175 175
8.000000 144.000000 20.032520 157 157 157
8.000000 145.000000 20.020834 145 145 145
8.000000 146.000000 20.032520 125 125 125
8.000000 147.000000 20.032520 116 116 116
8.000000 148.000000 20.086206 130 130 130
8.000000 151.000000 20.180851 153 153 153
8.000000 165.000000 20.383928 162 162 162
8.000000 166.000000 20.293940 153 153 153
8.000000 167.000000 20.289238 153 153 153
8.000000 168.000000 20.289238 156 156 156
8.000000 169.000000 20.270992 165 165 165
8.000000 170.000000 20.270992 165 165 165
8.000000 171.000000 20.270992 168 168 168
8.000000 172.000000 20.310810 174 174 174
8.000000 173.000000 20.311764 178 178 178
8.000000 174.000000 20.482143 175 175 175
8.000000 175.000000 20.482143 175 175 175
8.000000 176.000000 20.581081 166 166 166
8.000000 177.000000 20.806122 151 151 151
8.000000 178.000000 20.884615 143 143 143
8.000000 179.000000 20.901869 106 106 106
8.000000 180.000000 20.906113 101 101 101
8.000000 181.000000 20.941624 97 97 97
8.000000 182.000000 20.961140 97 97 97
8.000000 183.000000 20.972527 108 108 108
8.000000 184.000000 20.972527 108 108 108
8.000000 185.000000 20.982588 117 117 117
8.000000 186.000000 21.000000 99 99 99
8.000000 187.000000 21.000000 52 52 52
8.000000 188.000000 21.000000 80 80 80
8.000000 189.000000 20.938776 75 75 75
8.000000 190.000000 20.938776 51 51 51
8.000000 191.000000 20.938776 94 94 94
8.000000 192.000000 20.938776 92 92 92
8.000000 193.000000 20.938776 126 126 126
8.000000 194.000000 20.938776 148 148 148
8.000000 195.000000 20.927631 148 148 148
8.000000 196.000000 20.892345 150 150 150
8.000000 197.000000 20.886599 148 148 148
8.000000 198.000000 20.831684 148 148 148
8.000000 199.000000 20.769007 149 149 149
8.000000 200.000000 20.769007 149 149 149
8.000000 201.000000 20.683544 148 148 148
8.000000 202.000000 20.363636 150 150 150
8.000000 203.000000 20.333334 148 148 148
8.000000 204.000000 20.333334 143 143 143
8.000000 205.000000 20.333334 136 136 136
8.000000 206.000000 20.227810 164 164 164
8.000000 207.000000 20.227810 132 132 132
8.000000 208.000000 20.138298 126 126 126
8.000000 209.000000 20.052763 149 149 149
8.000000 210.000000 20.043690 144 144 144
8.000000 211.000000 20.043690 141 141 141
8.000000 212.000000 20.043690 139 139 139
8.000000 213.000000 20.043209 133 133 133
8.000000 214.000000 20.043209 131 131 131
8.000000 215.000000 20.064102 128 128 128
8.000000 216.000000 20.056963 126 126 126
8.000000 217.000000 20.056963 121 121 121
8.000000 218.000000 20.056963 119 119 119
8.000000 219.000000 20.056963 125 125 125
8.000000 220.000000 20.035715 128 128 128
8.000000 221.000000 20.010639 130 130 130
8.000000 222.000000 20.000000 131 131 131
8.000000 223.000000 20.000000 132 132 132
8.000000 224.000000 20.000000 147 147 147
8.000000 225.000000 20.000000 105 105 105
8.000000 226.000000 20.000000 100 100 100
8.000000 227.000000 20.000000 110 110 110
8.000000 228.000000 19.976923 151 151 151
8.000000 229.000000 19.952471 157 157 157
8.000000 230.000000 19.951263 154 154 154
8.000000 231.000000 19.951263 141 141 141
8.000000 232.000000 19.945887 143 143 143
8.000000 233.000000 19.945887 141 141 141
8.000000 234.000000 19.863310 139 139 139
8.000000 235.000000 19.862318 138 138 138
8.000000 236.000000 19.734482 137 137 137
8.000000 237.000000 19.722221 139 139 139
8.000000 238.000000 19.666666 137 137 137
8.000000 239.000000 19.666666 132 132 132
8.000000 240.000000 19.655642 146 146 146
8.000000 241.000000 19.573359 154 154 154
8.000000 242.000000 19.527559 129 129 129
8.000000 243.000000 19.404306 131 131 131
8.000000 244.000000 19.370371 136 136 136
8.000000 245.000000 19.316668 134 134 134
8.000000 246.000000 19.270731 133 133 133
8.000000 247.000000 19.270731 132 132 132
8.000000 248.000000 19.186792 134 134 134
8.000000 249.000000 19.116667 132 132 132
8.000000 250.000000 19.087570 131 131 131
8.000000 251.000000 19.059999 130 130 130
8.000000 252.000000 19.059999 127 127 127
8.000000 253.000000 19.083334 127 127 127
8.000000 254.000000 19.083334 130 130 130
8.000000 255.000000 19.033333 127 127 127
8.000000 256.000000 19.033333 131 131 131
8.000000 257.000000 19.069492 96 96 96
8.000000 258.000000 19.043478 74 74 74
8.000000 259.000000 19.000000 89 89 89
8.000000 260.000000 19.000000 68 68 68
8.000000 261.000000 19.000000 98 98 98
8.000000 262.000000 19.000000 125 125 125
8.000000 263.000000 19.000000 119 119 119
8.000000 264.000000 19.000000 123 123 123
8.000000 265.000000 19.000000 121 121 121
8.000000 266.000000 19.040773 118 118 118
8.000000 267.000000 19.056887 119 119 119
8.000000 268.000000 19.177042 118 118 118
8.000000 269.000000 19.180933 120 120 120
8.000000 270.000000 19.286459 113 113 113
8.000000 271.000000 19.797806 116 116 116
8.000000 272.000000 19.896296 136 136 136
8.000000 273.000000 20.017731 155 155 155
8.000000 274.000000 20.160378 154 154 154
8.000000 275.000000 20.268293 154 154 154
8.000000 276.000000 20.466667 155 155 155
8.000000 277.000000 20.529070 154 154 154
8.000000 278.000000 20.722221 157 157 157
8.000000 279.000000 20.795155 159 159 159
8.000000 280.000000 20.798969 157 157 157
8.000000 281.000000 20.816584 148 148 148
8.000000 282.000000 20.833334 143 143 143
8.000000 283.000000 20.833334 152 152 152
8.000000 284.000000 20.833334 138 138 138
8.000000 285.000000 20.833334 103 103 103
8.000000 286.000000 20.833334 121 121 121
8.000000 287.000000 20.857143 120 120 120
8.000000 288.000000 20.861345 113 113 113
8.000000 289.000000 20.861345 172 172 172
8.000000 290.000000 20.893940 175 175 175
8.000000 291.000000 20.893940 168 168 168
8.000000 292.000000 20.911764 169 169 169
8.000000 293.000000 20.901869 176 176 176
8.000000 294.000000 20.901869 169 169 169
8.000000 295.000000 20.900881 169 169 169
8.000000 296.000000 20.900881 167 167 167
8.000000 297.000000 20.884615 171 171 171
8.000000 298.000000 20.884615 174 174 174
8.000000 299.000000 20.884615 171 171 171
8.000000 300.000000 20.886759 172 172 172
8.000000 301.000000 20.924658 173 173 173
8.000000 302.000000 20.932432 166 166 166
8.000000 303.000000 20.936619 168 168 168
8.000000 304.000000 20.936619 170 170 170
8.000000 305.000000 20.936619 171 171 171
8.000000 306.000000 20.936619 170 170 170
8.000000 307.000000 20.899141 167 167 167
8.000000 308.000000 20.899141 170 170 170
8.000000 309.000000 20.883966 165 165 165
8.000000 310.000000 20.823277 177 177 177
8.000000 311.000000 20.823277 163 163 163
8.000000 312.000000 20.798388 119 119 119
8.000000 313.000000 20.798388 129 129 129
8.000000 314.000000 20.798388 127 127 127
8.000000 315.000000 20.822449 131 131 131
8.000000 316.000000 20.821428 149 149 149
8.000000 317.000000 20.819838 158 158 158
8.000000 318.000000 20.679487 152 152 152
8.000000 319.000000 20.750000 149 149 149
8.000000 320.000000 20.750000 144 144 144
8.000000 321.000000 20.769962 153 153 153
8.000000 322.000000 20.769962 147 147 147
8.000000 323.000000 20.777420 150 150 150
8.000000 324.000000 20.736687 153 153 153
8.000000 325.000000 20.736687 150 150 150
8.000000 326.000000 20.736687 144 144 144
8.000000 327.000000 20.736687 146 146 146
8.000000 328.000000 20.736687 150 150 150
8.000000 329.000000 20.813869 146 146 146
8.000000 330.000000 20.818182 138 138 138
8.000000 331.000000 20.838129 131 131 131
8.000000 332.000000 20.848837 118 118 118
8.000000 333.000000 20.904652 84 84 84
8.000000 334.000000 20.919142 77 77 77
8.000000 335.000000 20.919142 142 142 142
8.000000 336.000000 20.919142 171 171 171
8.000000 337.000000 20.939253 164 164 164
8.000000 338.000000 21.002415 164 164 164
8.000000 339.000000 21.002415 164 164 164
8.000000 340.000000 21.002415 163 163 163
8.000000 341.000000 20.950001 166 166 166
8.000000 342.000000 20.950001 163 163 163
8.000000 343.000000 20.918804 167 167 167
8.000000 344.000000 20.918804 169 169 169
8.000000 345.000000 20.918804 167 167 167
8.000000 346.000000 20.906250 169 169 169
8.000000 347.000000 20.900000 168 168 168
8.000000 348.000000 20.900000 167 167 167
8.000000 349.000000 20.900000 170 170 170
8.000000 350.000000 20.906250 167 167 167
8.000000 351.000000 20.906250 167 167 167
8.000000 352.000000 20.911392 169 169 169
8.000000 353.000000 20.920139 169 169 169
8.000000 354.000000 20.920139 170 170 170
8.000000 355.000000 20.892241 168 168 168
8.000000 356.000000 20.892241 170 170 170
8.000000 357.000000 20.874430 182 182 182
8.000000 358.000000 20.853909 141 141 141
8.000000 359.000000 20.827778 126 126 126
8.000000 360.000000 20.141026 148 148 148
8.000000 361.000000 17.002392 153 153 153
8.000000 362.000000 16.908730 142 142 142
8.000000 363.000000 16.908730 139 139 139
8.000000 364.000000 16.908451 130 130 130
8.000000 365.000000 16.890863 146 146 146
8.000000 366.000000 16.892857 152 152 152
8.000000 367.000000 16.968750 151 151 151
8.000000 368.000000 16.968750 148 148 148
8.000000 369.000000 16.968750 146 146 146
8.000000 370.000000 17.265854 148 148 148
8.000000 371.000000 17.672413 151 151 151
8.000000 375.000000 20.369566 164 164 164
8.000000 376.000000 20.369566 167 167 167
8.000000 377.000000 20.369566 153 153 153
8.000000 378.000000 20.464539 127 127 127
8.000000 379.000000 20.585714 98 98 98
8.000000 380.000000 20.592714 66 66 66
8.000000 381.000000 20.660221 97 97 97
8.000000 382.000000 20.813433 146 146 146
8.000000 383.000000 20.825968 141 141 141
8.000000 384.000000 20.825968 140 140 140
8.000000 385.000000 20.825968 144 144 144
8.000000 386.000000 20.825968 139 139 139
8.000000 387.000000 20.825968 137 137 137
8.000000 388.000000 20.825968 132 132 132
8.000000 389.000000 20.825968 133 133 133
8.000000 390.000000 20.825968 137 137 137
8.000000 391.000000 20.825968 143 143 143
8.000000 392.000000 20.825968 146 146 146
8.000000 393.000000 20.825968 143 143 143
8.000000 394.000000 20.825968 148 148 148
8.000000 395.000000 20.825968 151 151 151
8.000000 396.000000 20.869230 147 147 147
8.000000 397.000000 20.884146 144 144 144
8.000000 398.000000 20.884146 140 140 140
8.000000 399.000000 20.884146 141 141 141
8.000000 400.000000 20.865080 146 146 146
8.000000 401.000000 20.769035 146 146 146
8.000000 402.000000 20.711267 146 146 146
8.000000 403.000000 20.648935 147 147 147
8.000000 404.000000 20.630434 158 158 158
8.000000 405.000000 20.544025 165 165 165
8.000000 406.000000 20.336956 165 165 165
8.000000 407.000000 20.292454 148 148 148
8.000000 408.000000 20.082418 143 143 143
8.000000 409.000000 20.005495 165 165 165
8.000000 410.000000 17.660000 164 164 164
8.000000 411.000000 17.660000 160 160 160
8.000000 412.000000 17.660000 163 163 163
8.000000 413.000000 17.660000 165 165 165
8.000000 414.000000 19.141577 165 165 165
8.000000 415.000000 19.141577 163 163 163
8.000000 416.000000 19.141577 165 165 165
8.000000 417.000000 19.141577 167 167 167
8.000000 418.000000 19.308430 158 158 158
8.000000 419.000000 20.217392 152 152 152
8.000000 423.000000 21.096491 157 157 157
8.000000 424.000000 21.048077 155 155 155
8.000000 425.000000 20.725807 147 147 147
8.000000 426.000000 20.543903 148 148 148
8.000000 427.000000 20.543903 120 120 120
8.000000 428.000000 20.540651 159 159 159
8.000000 429.000000 20.505747 174 174 174
8.000000 430.000000 20.404762 170 170 170
8.000000 431.000000 20.440790 169 169 169
8.000000 432.000000 20.505747 169 169 169
8.000000 433.000000 20.585106 168 168 168
8.000000 434.000000 20.697426 167 167 167
8.000000 435.000000 20.697426 168 168 168
8.000000 436.000000 20.697426 167 167 167
8.000000 437.000000 20.611650 169 169 169
8.000000 438.000000 20.212645 166 166 166
8.000000 439.000000 20.212645 168 168 168
8.000000 440.000000 20.212645 167 167 167
8.000000 441.000000 20.395350 165 165 165
8.000000 442.000000 20.395350 167 167 167
8.000000 443.000000 20.471830 167 167 167
8.000000 444.000000 20.471830 164 164 164
8.000000 445.000000 20.565790 163 163 163
8.000000 446.000000 20.565790 162 162 162
8.000000 447.000000 20.565790 163 163 163
8.000000 448.000000 20.647058 162 162 162
8.000000 449.000000 21.261589 162 162 162
9.000000 22.000000 17.111111 119 119 119
9.000000 23.000000 17.111111 64 64 64
9.000000 31.000000 17.380342 122 122 122
9.000000 32.000000 17.380342 122 122 122
9.000000 33.000000 17.446428 124 124 124
9.000000 34.000000 17.617117 138 138 138
9.000000 35.000000 17.706896 150 150 150
9.000000 36.000000 17.805555 134 134 134
9.000000 40.000000 17.913979 137 137 137
9.000000 41.000000 17.913979 105 105 105
9.000000 42.000000 17.949152 135 135 135
9.000000 43.000000 17.973215 148 148 148
9.000000 44.000000 17.973215 149 149 149
9.000000 45.000000 17.973959 152 152 152
9.000000 46.000000 17.981482 155 155 155
9.000000 47.000000 18.025423 114 114 114
9.000000 48.000000 18.068182 115 115 115
9.000000 53.000000 18.031496 141 141 141
9.000000 54.000000 18.031496 118 118 118
9.000000 55.000000 18.057491 119 119 119
9.000000 56.000000 18.145964 143 143 143
9.000000 57.000000 18.145964 142 142 142
9.000000 58.000000 18.133587 140 140 140
9.000000 59.000000 18.133587 139 139 139
9.000000 60.000000 18.133587 132 132 132
9.000000 61.000000 18.133587 154 154 154
9.000000 67.000000 18.370131 147 147 147
9.000000 68.000000 18.313559 143 143 143
9.000000 69.000000 18.370131 143 143 143
9.000000 70.000000 18.426828 145 145 145
9.000000 71.000000 18.458904 144 144 144
9.000000 72.000000 18.472973 144 144 144
9.000000 73.000000 18.716784 147 147 147
9.000000 74.000000 18.716784 141 141 141
9.000000 77.000000 18.855371 141 141 141
9.000000 78.000000 18.855371 146 146 146
9.000000 79.000000 18.873135 148 148 148
9.000000 80.000000 18.916000 144 144 144
9.000000 81.000000 18.916000 149 149 149
9.000000 82.000000 18.916000 124 124 124
9.000000 95.000000 19.098591 134 134 134
9.000000 96.000000 19.098591 117 117 117
9.000000 97.000000 19.098591 139 139 139
9.000000 109.000000 19.243244 174 174 174
9.000000 110.000000 19.093407 169 169 169
9.000000 111.000000 19.093407 182 182 182
9.000000 135.000000 20.087755 170 170 170
9.000000 136.000000 20.087755 172 172 172
9.000000 137.000000 20.087755 171 171 171
9.000000 138.000000 20.087755 170 170 170
9.000000 139.000000 20.087755 165 165 165
9.000000 140.000000 20.066668 185 185 185
9.000000 141.000000 20.066668 166 166 166
9.000000 144.000000 20.020834 152 152 152
9.000000 145.000000 20.020834 119 119 119
9.000000 146.000000 20.032520 128 128 128
9.000000 147.000000 20.045454 142 142 142
9.000000 165.000000 20.383928 171 171 171
9.000000 166.000000 20.289238 168 168 168
9.000000 167.000000 20.288462 168 168 168
9.000000 168.000000 20.288462 169 169 169
9.000000 169.000000 20.289238 166 166 166
9.000000 170.000000 20.310810 161 161 161
9.000000 171.000000 20.310810 155 155 155
9.000000 172.000000 20.311764 142 142 142
9.000000 173.000000 20.619047 131 131 131
9.000000 174.000000 20.619047 124 124 124
9.000000 175.000000 20.750000 110 110 110
9.000000 176.000000 20.806122 102 102 102
9.000000 177.000000 20.872549 99 99 99
9.000000 178.000000 20.901163 97 97 97
9.000000 179.000000 20.906113 97 97 97
9.000000 180.000000 20.941624 99 99 99
9.000000 181.000000 20.941624 104 104 104
9.000000 182.000000 20.961140 109 109 109
9.000000 183.000000 20.972527 113 113 113
9.000000 184.000000 20.972527 115 115 115
9.000000 185.000000 20.982588 128 128 128
9.000000 186.000000 21.000000 106 106 106
9.000000 187.000000 21.000000 53 53 53
9.000000 188.000000 21.000000 84 84 84
9.000000 189.000000 20.938776 75 75 75
9.000000 190.000000 20.938776 48 48 48
9.000000 191.000000 20.938776 93 93 93
9.000000 192.000000 20.938776 93 93 93
9.000000 193.000000 20.938776 97 97 97
9.000000 194.000000 20.938776 127 127 127
9.000000 195.000000 20.924461 150 150 150
9.000000 196.000000 20.924461 147 147 147
9.000000 197.000000 20.892345 149 149 149
9.000000 198.000000 20.828245 150 150 150
9.000000 199.000000 20.769007 149 149 149
9.000000 200.000000 20.760162 150 150 150
9.000000 201.000000 20.760162 149 149 149
9.000000 202.000000 20.590361 149 149 149
9.000000 203.000000 20.363636 149 149 149
9.000000 204.000000 20.347368 144 144 144
9.000000 205.000000 20.333334 136 136 136
9.000000 206.000000 20.227810 163 163 163
9.000000 207.000000 20.227810 136 136 136
9.000000 208.000000 20.138298 123 123 123
9.000000 209.000000 20.052763 149 149 149
9.000000 210.000000 20.043690 147 147 147
9.000000 211.000000 20.043690 139 139 139
9.000000 212.000000 19.992683 134 134 134
9.000000 213.000000 20.043209 135 135 135
9.000000 214.000000 20.047264 135 135 135
9.000000 215.000000 20.056963 130 130 130
9.000000 216.000000 20.056963 126 126 126
9.000000 217.000000 20.056963 120 120 120
9.000000 218.000000 20.056963 120 120 120
9.000000 219.000000 20.035715 125 125 125
9.000000 220.000000 20.010639 129 129 129
9.000000 221.000000 20.010639 132 132 132
9.000000 222.000000 20.010639 131 131 131
9.000000 223.000000 20.000000 136 136 136
9.000000 224.000000 20.000000 134 134 134
9.000000 225.000000 20.000000 95 95 95
9.000000 226.000000 20.000000 123 123 123
9.000000 227.000000 20.000000 100 100 100
9.000000 228.000000 19.976923 128 128 128
9.000000 229.000000 19.976923 165 165 165
9.000000 230.000000 19.952471 149 149 149
9.000000 231.000000 19.951263 136 136 136
9.000000 232.000000 19.951263 142 142 142
9.000000 233.000000 19.934782 141 141 141
9.000000 234.000000 19.881294 138 138 138
9.000000 235.000000 19.875000 139 139 139
9.000000 236.000000 19.830275 138 138 138
9.000000 237.000000 19.722221 137 137 137
9.000000 238.000000 19.722221 136 136 136
9.000000 239.000000 19.716784 133 133 133
9.000000 240.000000 19.716784 150 150 150
9.000000 241.000000 19.671822 147 147 147
9.000000 242.000000 19.573359 128 128 128
9.000000 243.000000 19.404306 136 136 136
9.000000 244.000000 19.404306 138 138 138
9.000000 245.000000 19.316668 136 136 136
9.000000 246.000000 19.316668 132 132 132
9.000000 247.000000 19.270731 132 132 132
9.000000 248.000000 19.270731 134 134 134
9.000000 249.000000 19.186792 132 132 132
9.000000 250.000000 19.087570 132 132 132
9.000000 251.000000 19.059999 131 131 131
9.000000 252.000000 19.059999 129 129 129
9.000000 253.000000 19.059999 129 129 129
9.000000 254.000000 19.059999 129 129 129
9.000000 255.000000 19.059999 128 128 128
9.000000 256.000000 19.093407 135 135 135
9.000000 257.000000 19.083334 80 80 80
9.000000 258.000000 19.045454 77 77 77
9.000000 259.000000 19.016129 91 91 91
9.000000 260.000000 19.000000 75 75 75
9.000000 261.000000 19.000000 79 79 79
9.000000 262.000000 19.000000 120 120 120
9.000000 263.000000 19.000000 121 121 121
9.000000 264.000000 19.000000 123 123 123
9.000000 265.000000 19.000000 119 119 119
9.000000 266.000000 19.040773 117 117 117
9.000000 267.000000 19.106838 119 119 119
9.000000 268.000000 19.177042 118 118 118
9.000000 269.000000 19.180933 118 118 118
9.000000 270.000000 19.181818 115 115 115
9.000000 271.000000 19.797806 113 113 113
9.000000 272.000000 19.949839 138 138 138
9.000000 273.000000 20.017731 161 161 161
9.000000 274.000000 20.160378 158 158 158
9.000000 275.000000 20.327068 158 158 158
9.000000 276.000000 20.466667 155 155 155
9.000000 277.000000 20.529070 158 158 158
9.000000 278.000000 20.716103 163 163 163
9.000000 279.000000 20.722221 156 156 156
9.000000 280.000000 20.795155 154 154 154
9.000000 281.000000 20.833334 155 155 155
9.000000 282.000000 20.833334 158 158 158
9.000000 283.000000 20.833334 134 134 134
9.000000 284.000000 20.833334 107 107 107
9.000000 285.000000 20.833334 118 118 118
9.000000 286.000000 20.833334 130 130 130
9.000000 287.000000 20.833334 131 131 131
9.000000 288.000000 20.833334 112 112 112
9.000000 289.000000 20.848837 131 131 131
9.000000 290.000000 20.893940 177 177 177
9.000000 291.000000 20.893940 169 169 169
9.000000 292.000000 20.901869 168 168 168
9.000000 293.000000 20.901869 168 168 168
9.000000 294.000000 20.901869 172 172 172
9.000000 295.000000 20.901869 171 171 171
9.000000 296.000000 20.900881 166 166 166
9.000000 297.000000 20.900881 168 168 168
9.000000 298.000000 20.884615 168 168 168
9.000000 299.000000 20.884615 175 175 175
9.000000 300.000000 20.884615 177 177 177
9.000000 301.000000 20.924658 172 172 172
9.000000 302.000000 20.924658 170 170 170
9.000000 303.000000 20.936619 165 165 165
9.000000 304.000000 20.936619 169 169 169
9.000000 305.000000 20.936619 174 174 174
9.000000 306.000000 20.911043 174 174 174
9.000000 307.000000 20.899141 172 172 172
9.000000 308.000000 20.883966 172 172 172
9.000000 309.000000 20.883966 168 168 168
9.000000 310.000000 20.881975 167 167 167
9.000000 311.000000 20.881975 180 180 180
9.000000 312.000000 20.823277 150 150 150
9.000000 313.000000 20.798388 115 115 115
9.000000 314.000000 20.798388 130 130 130
9.000000 315.000000 20.798388 159 159 159
9.000000 316.000000 20.807087 157 157 157
9.000000 317.000000 20.807087 150 150 150
9.000000 318.000000 20.750000 149 149 149
9.000000 319.000000 20.750000 154 154 154
9.000000 320.000000 20.750000 152 152 152
9.000000 321.000000 20.769962 149 149 149
9.000000 322.000000 20.777420 151 151 151
9.000000 323.000000 20.777420 153 153 153
9.000000 324.000000 20.758537 155 155 155
9.000000 325.000000 20.736687 152 152 152
9.000000 326.000000 20.736687 150 150 150
9.000000 327.000000 20.736687 151 151 151
9.000000 328.000000 20.736687 152 152 152
9.000000 329.000000 20.813869 147 147 147
9.000000 330.000000 20.825842 139 139 139
9.000000 331.000000 20.838129 131 131 131
9.000000 332.000000 20.848837 128 128 128
9.000000 333.000000 20.872549 119 119 119
9.000000 334.000000 20.904652 85 85 85
9.000000 335.000000 20.919142 86 86 86
9.000000 336.000000 20.919142 157 157 157
9.000000 337.000000 20.919142 173 173 173
9.000000 338.000000 20.939253 165 165 165
9.000000 339.000000 20.946667 163 163 163
9.000000 340.000000 20.994413 164 164 164
9.000000 341.000000 20.975571 163 163 163
9.000000 342.000000 20.950001 164 164 164
9.000000 343.000000 20.925926 165 165 165
9.000000 344.000000 20.925926 167 167 167
9.000000 345.000000 20.918804 168 168 168
9.000000 346.000000 20.900000 167 167 167
9.000000 347.000000 20.900000 169 169 169
9.000000 348.000000 20.900000 166 166 166
9.000000 349.000000 20.900000 164 164 164
9.000000 350.000000 20.900000 170 170 170
9.000000 351.000000 20.906250 169 169 169
9.000000 352.000000 20.911392 165 165 165
9.000000 353.000000 20.920139 169 169 169
9.000000 354.000000 20.920139 173 173 173
9.000000 355.000000 20.920139 171 171 171
9.000000 356.000000 20.892241 164 164 164
9.000000 357.000000 20.881975 168 168 168
9.000000 358.000000 20.853909 176 176 176
9.000000 359.000000 20.754099 137 137 137
9.000000 360.000000 20.554054 140 140 140
9.000000 361.000000 20.141026 153 153 153
9.000000 362.000000 17.002392 136 136 136
9.000000 363.000000 16.918104 140 140 140
9.000000 364.000000 16.918104 141 141 141
9.000000 365.000000 17.021008 139 139 139
